ply
format ascii 1.0
element vertex 638
property float x
property float y
property float z
property uchar red
property uchar green
property uchar blue
end_header
-0.367672622203826904 0.124661356210708618 0.389797896146774292 81 81 81
0.957228899002075195 -0.236559227108955383 0.770121634006500244 65 65 65
0.516134083271026611 -0.372952371835708618 0.900652647018432617 18 18 18
-0.294133633375167847 -0.326590389013290405 0.457791239023208618 255 255 255
0.992068171501159668 -0.119473420083522797 0.767602741718292236 161 161 161
0.00946819689124822617 0.319862842559814453 0.139538943767547607 88 88 88
0.971360862255096436 -0.136329352855682373 0.777526736259460449 71 71 71
-0.725521981716156006 0.0765188559889793396 0.283683240413665771 255 255 255
0.483266115188598633 -0.45059126615524292 0.883881568908691406 11 11 11
-0.320113480091094971 -0.0489225238561630249 0.550258040428161621 188 188 188
-0.741760790348052979 0.0148474900051951408 0.326295047998428345 5 5 5
0.639047682285308838 -0.522470593452453613 0.885361373424530029 185 185 185
-0.220286130905151367 -0.175749167799949646 0.997516810894012451 194 194 194
-0.299339175224304199 -0.252704858779907227 0.972247779369354248 199 199 199
-0.812503635883331299 -0.510214149951934814 0.915138483047485352 11 11 11
-0.19465106725692749 -0.340340554714202881 0.942869305610656738 232 232 232
-0.310924798250198364 0.0833720862865447998 0.374424606561660767 80 80 80
-0.700612187385559082 0.0738728791475296021 0.233982905745506287 255 255 255
0.222572967410087585 0.266534537076950073 0.263962864875793457 42 42 42
-0.381862103939056396 0.00806230399757623672 0.375032812356948853 95 95 95
-0.305325865745544434 -0.0836787447333335876 0.681299984455108643 169 169 169
-0.332343548536300659 -0.0512707158923149109 0.557010471820831299 186 186 186
0.204704716801643372 0.0420472472906112671 0.233451962471008301 118 118 118
0.95527958869934082 -0.341143995523452759 0.782627642154693604 65 65 65
0.946748077869415283 -0.280171841382980347 1.00154173374176025 119 119 119
-0.361889481544494629 0.246088862419128418 0.395767718553543091 84 84 84
0.957078337669372559 -0.151277944445610046 1.01103568077087402 79 79 79
-0.0810370072722434998 0.257364034652709961 0.346128344535827637 115 115 115
0.210345596075057983 0.2178974449634552 0.276442259550094604 45 45 45
0.851146399974822998 -0.401573091745376587 0.937276721000671387 167 167 167
-0.380675584077835083 0.0247264187783002853 0.370389044284820557 85 85 85
-0.382577449083328247 0.046494748443365097 0.3761310875415802 75 75 75
-0.368269801139831543 0.130504608154296875 0.390947967767715454 78 78 78
0.887708961963653564 -0.431633591651916504 0.947864294052124023 164 164 164
-0.0585000179708003998 0.26123318076133728 0.336405247449874878 118 118 118
-0.738686263561248779 0.0667029544711112976 0.339662402868270874 255 255 255
-0.368029326200485229 0.19226701557636261 0.403783291578292847 71 71 71
-0.0264458358287811279 0.237187653779983521 0.372163951396942139 121 121 121
0.629384458065032959 -0.474687248468399048 0.916412055492401123 25 25 25
0.18497641384601593 0.185943484306335449 0.659773290157318115 255 255 255
-0.373252362012863159 0.123456418514251709 0.39060288667678833 81 81 81
-0.710221707820892334 0.089457191526889801 0.227696835994720459 255 255 255
0.222028359770774841 -0.400417089462280273 0.888078570365905762 21 21 21
-0.742586076259613037 0.0437724664807319641 0.332947105169296265 8 8 8
0.371175020933151245 -0.39526095986366272 0.885159611701965332 20 20 20
0.342169046401977539 -0.299329847097396851 0.90606313943862915 18 18 18
0.340700775384902954 -0.50772327184677124 0.857626795768737793 15 15 15
-0.0344379842281341553 0.199113532900810242 0.462658584117889404 253 253 253
0.0438897684216499329 0.201674878597259521 0.398925125598907471 255 255 255
0.262794613838195801 0.15178699791431427 0.709974288940429688 255 255 255
-0.159415781497955322 0.281703948974609375 0.228492662310600281 120 120 120
0.362878918647766113 0.126222878694534302 0.752087891101837158 255 255 255
0.481420964002609253 0.0578392073512077332 1.03677332401275635 64 64 64
-0.688811659812927246 0.136429488658905029 0.216894268989562988 255 255 255
0.439754247665405273 -0.168837025761604309 0.942454516887664795 14 14 14
0.638700366020202637 -0.34015616774559021 0.96605604887008667 25 25 25
0.549664080142974854 0.0542812533676624298 1.03509736061096191 64 64 64
0.294520795345306396 -0.494736164808273315 0.853615403175354004 14 14 14
0.513395369052886963 -0.0544479228556156158 0.993329823017120361 41 41 41
0.651520490646362305 -0.27581334114074707 0.972604274749755859 167 167 167
-0.173343852162361145 0.271266907453536987 0.275100529193878174 117 117 117
0.518856048583984375 -0.0776303038001060486 0.976442933082580566 13 13 13
-0.17747873067855835 0.287910103797912598 0.21866375207901001 113 113 113
-0.203391104936599731 0.308723390102386475 0.152823805809020996 111 111 111
0.402139812707901001 0.110772311687469482 0.74566340446472168 255 255 255
-0.824685573577880859 -0.246247202157974243 0.878553330898284912 74 74 74
0.401079684495925903 -0.394859373569488525 0.886272311210632324 9 9 9
0.283097147941589355 0.246850177645683289 0.666441977024078369 255 255 255
-0.838448941707611084 -0.117717288434505463 0.978589534759521484 65 65 65
-0.830673277378082275 -0.018480982631444931 0.962359130382537842 83 83 83
-0.828684091567993164 -0.0796181038022041321 0.938099265098571777 69 69 69
-0.83462899923324585 -0.392685532569885254 0.871595382690429688 120 120 120
0.27360987663269043 -0.308952391147613525 0.887838304042816162 17 17 17
-0.0800590887665748596 0.263199746608734131 0.293159186840057373 116 116 116
0.427696108818054199 0.0757426992058753967 1.05716729164123535 60 60 60
-0.714891016483306885 0.055336393415927887 0.335389316082000732 76 76 76
0.208792626857757568 -0.115232765674591064 0.792096555233001709 14 14 14
-0.868286848068237305 -0.0773159638047218323 0.898388385772705078 11 11 11
-0.879346072673797607 -0.0029964447021484375 0.939776062965393066 13 13 13
0.271136045455932617 -0.101375669240951538 0.876910269260406494 14 14 14
-0.852725625038146973 -0.218093395233154297 0.991228878498077393 71 71 71
0.413555055856704712 -0.4043731689453125 0.881667435169219971 16 16 16
-0.876895725727081299 -0.0971723124384880066 0.969709694385528564 57 57 57
-0.866807043552398682 -0.190209195017814636 0.896465837955474854 59 59 59
-0.834174215793609619 -0.286603361368179321 0.846380293369293213 89 89 89
-0.710417687892913818 0.105975538492202759 0.171812057495117188 255 255 255
-0.855793774127960205 -0.148904070258140564 0.901524126529693604 66 66 66
-0.851456880569458008 -0.119402378797531128 0.972188413143157959 70 70 70
-0.858135104179382324 -0.134660467505455017 0.925762951374053955 66 66 66
-0.700189471244812012 0.104290194809436798 0.153051942586898804 255 255 255
0.492248833179473877 -0.0230533871799707413 1.00758814811706543 101 101 101
-0.181194737553596497 -0.00730475177988409996 0.412237495183944702 253 253 253
0.285039991140365601 0.110362470149993896 0.314370930194854736 140 140 140
-0.325775235891342163 0.268065184354782104 0.290429472923278809 115 115 115
-0.54153907299041748 0.202287450432777405 0.445847928524017334 51 51 51
-0.563308954238891602 -0.507153511047363281 1.02271294593811035 13 13 13
-0.589306354522705078 0.0284173488616943359 0.422046244144439697 69 69 69
-0.421897441148757935 0.161752894520759583 0.405239254236221313 79 79 79
0.409403681755065918 -0.209913596510887146 0.313843071460723877 137 137 137
0.697975993156433105 -0.00282092951238155365 1.05792748928070068 56 56 56
-0.296457529067993164 -0.198282346129417419 0.98248058557510376 206 206 206
-0.276817977428436279 0.176947370171546936 0.381449073553085327 83 83 83
0.0921386107802391052 0.259957551956176758 0.304096043109893799 122 122 122
-0.323739677667617798 -0.475905746221542358 0.868885815143585205 219 219 219
0.560868501663208008 -0.523140907287597656 0.862060070037841797 25 25 25
-0.249115288257598877 -0.0518419668078422546 0.571810662746429443 205 205 205
0.212651699781417847 0.192642390727996826 0.612024843692779541 255 255 255
-0.388368517160415649 -0.214372426271438599 0.325998187065124512 255 255 255
-0.331856667995452881 -0.475333273410797119 0.868879854679107666 201 201 201
-0.442349493503570557 -0.130282953381538391 0.190044179558753967 255 255 255
0.303555458784103394 -0.305082470178604126 0.896401464939117432 15 15 15
-0.290295779705047607 0.0907395258545875549 0.374821901321411133 90 90 90
-0.0670829787850379944 -0.241891056299209595 0.982567250728607178 236 236 236
-0.243312358856201172 -0.0208452325314283371 0.463183045387268066 223 223 223
-0.331112861633300781 -0.481944471597671509 0.865209460258483887 206 206 206
-0.411208242177963257 -0.149824991822242737 0.890223205089569092 13 13 13
0.304833471775054932 -0.316221088171005249 0.89514005184173584 15 15 15
-0.600826919078826904 0.0840275287628173828 0.119786165654659271 142 142 142
0.252242743968963623 0.172818496823310852 0.233525723218917847 113 113 113
-0.352559715509414673 0.259246468544006348 0.360113620758056641 102 102 102
-0.302268087863922119 -0.000385755178285762668 0.365883618593215942 221 221 221
-0.0361078940331935883 0.22494487464427948 0.429339736700057983 129 129 129
-0.551221191883087158 -0.475904375314712524 1.09520471096038818 11 11 11
-0.608231484889984131 0.122737891972064972 0.435855507850646973 55 55 55
-0.501690089702606201 -0.458840638399124146 0.85796588659286499 10 10 10
-0.349708735942840576 0.273362159729003906 0.266845822334289551 116 116 116
-0.151517733931541443 0.258905678987503052 0.307639032602310181 133 133 133
-0.340396076440811157 0.211961746215820312 0.398388147354125977 72 72 72
-0.287019938230514526 -0.0378722921013832092 0.511543154716491699 215 215 215
0.140331506729125977 0.138362511992454529 0.67816007137298584 115 115 115
0.981361091136932373 -0.395496517419815063 0.603361129760742188 21 21 21
0.105719506740570068 0.289947092533111572 0.213550925254821777 107 107 107
-0.612810432910919189 0.106849633157253265 0.435810089111328125 57 57 57
-0.427168369293212891 -0.141127854585647583 0.214885488152503967 255 255 255
-0.0197599940001964569 0.224239766597747803 0.445127397775650024 123 123 123
0.211789637804031372 0.0466756522655487061 0.228670254349708557 73 73 73
-0.37870866060256958 -0.193108707666397095 0.313621610403060913 255 255 255
-0.138430148363113403 0.24843151867389679 0.351358979940414429 123 123 123
-0.570035398006439209 0.165996447205543518 0.450508803129196167 63 63 63
0.27896544337272644 0.163850933313369751 0.218547314405441284 106 106 106
-0.508252322673797607 -0.305032670497894287 1.06453335285186768 11 11 11
-0.273730427026748657 0.290686279535293579 0.186707153916358948 123 123 123
-0.576321423053741455 -0.290124058723449707 0.918658852577209473 13 13 13
0.979446232318878174 -0.141913160681724548 0.695024311542510986 45 45 45
-0.58855205774307251 0.089725203812122345 0.113861933350563049 163 163 163
0.392589598894119263 -0.272841572761535645 0.917217731475830078 6 6 6
-0.27011793851852417 0.296601712703704834 0.185272932052612305 117 117 117
0.494423031806945801 0.00396322738379240036 1.0158841609954834 104 104 104
-0.567525804042816162 -0.021315285935997963 0.419038623571395874 74 74 74
0.300710886716842651 -0.196332335472106934 0.109931774437427521 152 152 152
0.95719444751739502 -0.194803923368453979 0.690238296985626221 205 205 205
0.956080615520477295 -0.375551193952560425 0.723717868328094482 83 83 83
0.379131823778152466 -0.192829236388206482 0.939675629138946533 15 15 15
-0.600594818592071533 0.0788611918687820435 0.13890036940574646 172 172 172
-0.550957024097442627 0.101604245603084564 0.425236374139785767 68 68 68
-0.61318594217300415 -0.389107316732406616 0.919494092464447021 26 26 26
0.414991080760955811 -0.163415953516960144 0.930323958396911621 16 16 16
-0.474099874496459961 -0.367552250623703003 0.848638653755187988 8 8 8
0.405551999807357788 -0.189598873257637024 0.932620346546173096 19 19 19
-0.545536160469055176 -0.0772953405976295471 0.892348706722259521 12 12 12
0.348019838333129883 0.120430491864681244 0.901851892471313477 100 100 100
-0.603722751140594482 0.0431066974997520447 0.425557464361190796 68 68 68
-0.483644187450408936 -0.268865674734115601 0.914556264877319336 9 9 9
-0.144603922963142395 0.247561663389205933 0.328132659196853638 135 135 135
-0.509476304054260254 -0.251206696033477783 0.901379168033599854 14 14 14
-0.0285661648958921432 0.216592609882354736 0.466029524803161621 108 108 108
-0.615962505340576172 -0.451936066150665283 0.894360840320587158 29 29 29
-0.610989570617675781 -0.0123856421560049057 0.429777771234512329 103 103 103
-0.58349156379699707 -0.41361883282661438 1.04038870334625244 15 15 15
0.301620155572891235 -0.0556110814213752747 0.145559102296829224 132 132 132
-0.494915872812271118 -0.0547019541263580322 0.948381900787353516 11 11 11
-0.552317142486572266 0.217489495873451233 0.456994414329528809 38 38 38
-0.553131282329559326 0.164445355534553528 0.439841538667678833 60 60 60
-0.551794588565826416 0.210069015622138977 0.450401216745376587 21 21 21
0.08774537593126297 0.200186476111412048 0.594488561153411865 255 255 255
-0.499521344900131226 -0.121091775596141815 0.910369634628295898 11 11 11
0.360504359006881714 0.00232745008543133736 0.136557221412658691 117 117 117
-0.61012566089630127 -0.376146823167800903 0.925112903118133545 27 27 27
-0.518438518047332764 -0.20563642680644989 0.911595463752746582 11 11 11
0.306900471448898315 -0.0431736335158348083 0.148290827870368958 126 126 126
0.244445770978927612 -0.163552507758140564 0.13806489109992981 147 147 147
0.227099165320396423 -0.15478689968585968 0.147746726870536804 147 147 147
-0.0698282718658447266 0.158158287405967712 0.0172489732503890991 129 129 129
0.227467268705368042 -0.137671619653701782 0.149261355400085449 147 147 147
-0.553757548332214355 -0.0093038119375705719 0.42191082239151001 122 122 122
-0.504337728023529053 -0.204363420605659485 0.911512434482574463 12 12 12
-0.0981874018907546997 0.0679660961031913757 0.00807359162718057632 43 43 43
-0.60463714599609375 -0.00690265744924545288 0.416947424411773682 80 80 80
0.295931220054626465 -0.103067308664321899 0.134924262762069702 123 123 123
-0.555284380912780762 0.153623178601264954 0.440738081932067871 58 58 58
0.389907211065292358 0.240322291851043701 0.191205427050590515 111 111 111
-0.553166866302490234 0.117363668978214264 0.433636695146560669 70 70 70
0.318722635507583618 -0.0410124249756336212 0.141671255230903625 125 125 125
-0.555667579174041748 0.105684027075767517 0.429021358489990234 66 66 66
-0.623022019863128662 -0.353727221488952637 0.950226843357086182 14 14 14
0.260125875473022461 -0.113328889012336731 0.147764548659324646 134 134 134
-0.553417861461639404 0.143845707178115845 0.439653486013412476 69 69 69
-0.612060844898223877 -0.319668740034103394 0.968176841735839844 15 15 15
-0.558403611183166504 0.0497463010251522064 0.413661926984786987 68 68 68
0.346088051795959473 0.0122533924877643585 0.148993879556655884 109 109 109
0.247597187757492065 -0.0746058449149131775 0.162250131368637085 125 125 125
-0.0674571990966796875 0.10568835586309433 0.0177856460213661194 102 102 102
-0.0825461000204086304 0.254054874181747437 0.0161516778171062469 105 105 105
-0.0842259526252746582 0.295845717191696167 0.0150462845340371132 111 111 111
-0.0695846378803253174 0.186031311750411987 0.0326617732644081116 130 130 130
0.320262670516967773 0.094411119818687439 0.180157274007797241 114 114 114
0.386591047048568726 0.209444671869277954 0.206769809126853943 117 117 117
0.304661065340042114 0.0777373388409614563 0.184904932975769043 116 116 116
0.211567029356956482 -0.165250197052955627 0.16195717453956604 87 87 87
0.263323992490768433 0.0841288194060325623 0.199016571044921875 120 120 120
0.307738810777664185 0.0919368937611579895 0.187177196145057678 109 109 109
0.253121346235275269 0.0428117364645004272 0.191306933760643005 124 124 124
0.23485197126865387 -0.0582910850644111633 0.169582381844520569 125 125 125
0.349430739879608154 0.30811646580696106 0.206881195306777954 94 94 94
-0.0739207044243812561 0.267827749252319336 0.0334333367645740509 107 107 107
0.349464446306228638 0.255533874034881592 0.222261324524879456 105 105 105
0.279867321252822876 0.0604208745062351227 0.18578667938709259 126 126 126
0.208924442529678345 -0.139646947383880615 0.174085438251495361 109 109 109
-0.0267300866544246674 0.320870667695999146 0.115369714796543121 95 95 95
0.213930860161781311 0.1264658123254776 0.245242804288864136 59 59 59
-0.0747371986508369446 0.314118027687072754 0.143667727708816528 111 111 111
0.218887850642204285 0.155225753784179688 0.612478554248809814 255 255 255
-0.26551172137260437 0.151710674166679382 -0.0858741477131843567 109 109 109
-0.274414360523223877 0.192738309502601624 0.384163200855255127 88 88 88
-0.284546464681625366 0.264563322067260742 0.288833588361740112 120 120 120
0.0695769935846328735 0.298688799142837524 0.160232037305831909 104 104 104
0.8482016921043396 -0.536323487758636475 0.918966472148895264 213 213 213
-0.302282124757766724 -0.424425452947616577 0.90963512659072876 221 221 221
0.0656437575817108154 0.270736128091812134 0.293688029050827026 128 128 128
0.236665055155754089 0.30788007378578186 0.14773954451084137 107 107 107
0.0665294378995895386 -0.0874054357409477234 0.906230926513671875 83 83 83
0.00896338000893592834 0.236939191818237305 0.413697957992553711 125 125 125
-0.0512411929666996002 0.178412601351737976 0.0445024296641349792 127 127 127
0.934272825717926025 0.0960182696580886841 0.85963064432144165 70 70 70
0.513166606426239014 0.18179929256439209 0.664946019649505615 255 255 255
-0.0673485398292541504 0.213881537318229675 0.480760067701339722 121 121 121
-0.300736755132675171 0.2849692702293396 0.218293085694313049 120 120 120
0.373557835817337036 0.233701020479202271 0.196403264999389648 118 118 118
-0.0799598246812820435 0.174109041690826416 0.00846730265766382217 110 110 110
0.181850284337997437 0.272926151752471924 0.259015023708343506 116 116 116
0.930505275726318359 0.093481011688709259 0.87486952543258667 76 76 76
-0.119343787431716919 0.327804893255233765 0.101014390587806702 120 120 120
0.0734632760286331177 0.266602426767349243 0.297407656908035278 126 126 126
-0.153723865747451782 -0.43606114387512207 0.917918741703033447 255 255 255
0.246549412608146667 0.181565463542938232 0.236056402325630188 112 112 112
-0.128680199384689331 -0.198578938841819763 1.00104725360870361 219 219 219
0.952433288097381592 -0.117970891296863556 0.795636177062988281 67 67 67
0.988022983074188232 0.102974481880664825 0.753976404666900635 114 114 114
-0.11613474041223526 0.342886209487915039 0.0456098690629005432 105 105 105
0.21213570237159729 -0.115183338522911072 0.806414961814880371 16 16 16
-0.112380959093570709 0.28108629584312439 0.245831906795501709 126 126 126
-0.0917557179927825928 0.200028344988822937 -0.0590321347117424011 66 66 66
-0.228630587458610535 -0.468186885118484497 0.997868359088897705 243 243 243
0.254150092601776123 -0.313867658376693726 0.893270492553710938 17 17 17
0.299226969480514526 0.196300163865089417 0.212683826684951782 118 118 118
-0.208149462938308716 0.265433609485626221 0.311907321214675903 123 123 123
0.1995982825756073 0.169130787253379822 0.680630624294281006 255 255 255
-0.104273810982704163 0.284941792488098145 0.245060160756111145 125 125 125
0.104263670742511749 0.295312970876693726 0.179559558629989624 108 108 108
0.208730503916740417 0.267940938472747803 0.286603361368179321 52 52 52
-0.305300533771514893 0.0248054061084985733 0.36236920952796936 94 94 94
0.158341184258460999 0.223032772541046143 0.431962877511978149 255 255 255
0.820045650005340576 0.0490994863212108612 0.957203030586242676 122 122 122
0.167228341102600098 -0.376770347356796265 0.895048797130584717 22 22 22
0.107520446181297302 -0.441692262887954712 0.946493029594421387 252 252 252
0.183135300874710083 0.280933469533920288 0.252983927726745605 125 125 125
-0.217696696519851685 0.298470824956893921 0.180144265294075012 133 133 133
0.264862269163131714 -0.142060771584510803 0.808407425880432129 18 18 18
-0.27299913763999939 0.255406498908996582 0.337867558002471924 105 105 105
-0.227273359894752502 0.181500822305679321 0.374789655208587646 83 83 83
-0.227273046970367432 0.181501001119613647 0.374790102243423462 83 83 83
0.388708382844924927 -0.368912249803543091 0.892195999622344971 12 12 12
0.364715635776519775 0.290697991847991943 0.184365853667259216 100 100 100
0.57053905725479126 -0.173187687993049622 0.976249635219573975 17 17 17
-0.373259633779525757 0.27356758713722229 0.276181697845458984 117 117 117
-0.229087889194488525 0.299531638622283936 0.172877445816993713 120 120 120
0.779419541358947754 -0.181491374969482422 1.02751922607421875 186 186 186
0.139610037207603455 -0.484180301427841187 1.00548017024993896 255 255 255
-0.159797117114067078 0.336070030927658081 0.0641216859221458435 116 116 116
0.263125509023666382 -0.272467374801635742 0.902128934860229492 21 21 21
-0.260951727628707886 0.114731624722480774 0.372116267681121826 89 89 89
-0.16901688277721405 0.239011839032173157 0.37556689977645874 107 107 107
-0.248593002557754517 0.113163940608501434 0.369475215673446655 86 86 86
-0.145889371633529663 0.275626599788665771 0.269911110401153564 134 134 134
-0.213074341416358948 0.255902677774429321 0.336360901594161987 119 119 119
0.220117092132568359 -0.125945881009101868 0.812226772308349609 18 18 18
0.231317445635795593 -0.137219637632369995 0.821709990501403809 190 190 190
-0.269097715616226196 0.194903895258903503 0.382679522037506104 90 90 90
0.0395929589867591858 -0.318725407123565674 0.971432268619537354 249 249 249
-0.218139529228210449 0.315824121236801147 0.140559270977973938 119 119 119
0.57112431526184082 -0.495923638343811035 0.865913331508636475 26 26 26
0.221052065491676331 -0.230232506990432739 0.900005340576171875 16 16 16
0.201239109039306641 -0.4461078941822052 0.859453022480010986 22 22 22
0.458609789609909058 -0.294275194406509399 0.920238494873046875 17 17 17
-0.071886502206325531 0.192767307162284851 0.0236765295267105103 138 138 138
0.0897667109966278076 0.290933489799499512 0.192860394716262817 108 108 108
-0.300821304321289062 0.175565734505653381 0.387841343879699707 90 90 90
-0.227202042937278748 0.280224263668060303 0.290709763765335083 124 124 124
-0.0791434720158576965 0.188301593065261841 0.00985685549676418304 120 120 120
-0.183975264430046082 -0.00678663095459342003 0.41782262921333313 231 231 231
-0.266739755868911743 0.273334801197052002 0.245880275964736938 127 127 127
0.244895711541175842 0.319117873907089233 0.151313081383705139 119 119 119
-0.21615813672542572 -0.0164216049015522003 0.452196449041366577 224 224 224
-0.193158000707626343 0.182310596108436584 0.368784010410308838 96 96 96
-0.0932360067963600159 0.27668076753616333 -0.0552688948810100555 34 34 34
-0.166850224137306213 -0.0454675890505313873 0.564941704273223877 201 201 201
-0.317117005586624146 0.19793352484703064 0.392538726329803467 78 78 78
-0.259165078401565552 0.0853692367672920227 -0.0569456331431865692 47 47 47
-0.0695385187864303589 0.146135434508323669 0.00867715757340192795 138 138 138
0.0188318416476249695 -0.212032318115234375 0.990484952926635742 227 227 227
-0.216397657990455627 -0.0314730554819107056 0.478892922401428223 217 217 217
-0.279408365488052368 0.0475745908915996552 0.365395903587341309 94 94 94
-0.311575978994369507 0.00298035796731710434 0.36078217625617981 150 150 150
0.0348814502358436584 -0.258598536252975464 0.973417043685913086 236 236 236
-0.219485580921173096 0.262245386838912964 0.323743134737014771 112 112 112
-0.104535616934299469 0.286987394094467163 0.225313201546669006 126 126 126
-0.291740834712982178 0.0873350724577903748 0.37337532639503479 91 91 91
-0.323500394821166992 0.171582311391830444 0.390624552965164185 88 88 88
-0.310500413179397583 -0.0113515648990869522 0.427503794431686401 226 226 226
-0.334847986698150635 0.166315793991088867 0.389778465032577515 81 81 81
0.0864990875124931335 -0.294654130935668945 0.963017165660858154 239 239 239
-0.34361797571182251 0.0394030138850212097 0.37152513861656189 95 95 95
-0.0166163686662912369 -0.335747987031936646 0.957776427268981934 255 255 255
-0.327343612909317017 0.254510551691055298 0.320802032947540283 105 105 105
-0.0147573584690690041 -0.355301350355148315 0.927082836627960205 255 255 255
-0.0511280447244644165 -0.471830517053604126 0.9036102294921875 255 255 255
-0.0284134577959775925 -0.395980238914489746 0.939112484455108643 255 255 255
-0.319788128137588501 0.250514209270477295 0.372740268707275391 99 99 99
-0.0230048373341560364 -0.291139066219329834 0.971566557884216309 243 243 243
-0.235836505889892578 -0.306900382041931152 0.565785467624664307 255 255 255
-0.394995689392089844 0.237509369850158691 0.361309677362442017 90 90 90
-0.312635868787765503 -0.0183435752987861633 0.442361742258071899 223 223 223
-0.34068945050239563 0.245264679193496704 0.39681282639503479 89 89 89
-0.347729951143264771 -0.00662991125136613846 0.379365354776382446 233 233 233
-0.0461041480302810669 -0.226586371660232544 0.984519779682159424 231 231 231
-0.129943758249282837 -0.12343113124370575 0.952098846435546875 209 209 209
-0.38553968071937561 0.027019185945391655 0.373081386089324951 92 92 92
-0.358450323343276978 0.128830805420875549 0.391088396310806274 92 92 92
-0.382763922214508057 0.0619888715445995331 0.379144728183746338 89 89 89
-0.36445927619934082 0.0481168776750564575 0.377089112997055054 86 86 86
-0.347542136907577515 0.226607546210289001 0.407395333051681519 17 17 17
-0.329446852207183838 -0.0245975721627473831 0.476987838745117188 213 213 213
-0.113147608935832977 -0.139610916376113892 0.88938528299331665 138 138 138
-0.142208203673362732 -0.43711581826210022 0.851620316505432129 255 255 255
-0.258059918880462646 -0.060463685542345047 0.614427506923675537 203 203 203
-0.360417038202285767 0.201910138130187988 0.40431252121925354 77 77 77
0.235439136624336243 -0.0847129598259925842 0.164546340703964233 148 148 148
-0.305899113416671753 0.0761686712503433228 0.373915284872055054 88 88 88
-0.419873595237731934 -0.0156385079026222229 0.425638377666473389 243 243 243
-0.479071229696273804 0.14107118546962738 0.416579633951187134 67 67 67
-0.0827944725751876831 0.282316744327545166 0.0153887327760457993 119 119 119
-0.21183951199054718 0.137774929404258728 0.36724361777305603 91 91 91
-0.107774429023265839 0.284052670001983643 0.221263125538825989 121 121 121
-0.125760659575462341 0.268476903438568115 0.315614551305770874 129 129 129
0.0458858795464038849 -0.124564886093139648 0.853094398975372314 13 13 13
0.214335650205612183 -0.0157909765839576721 0.204973027110099792 62 62 62
-0.179130077362060547 0.064855523407459259 0.352848857641220093 99 99 99
-0.15448172390460968 0.313953876495361328 0.141957551240921021 122 122 122
0.949019789695739746 -0.598464488983154297 0.93754047155380249 192 192 192
-0.0853812918066978455 0.339366674423217773 0.0389581173658370972 62 62 62
0.158890977501869202 -0.465249955654144287 0.89674675464630127 21 21 21
-0.0657085701823234558 0.329823553562164307 0.0909993201494216919 90 90 90
0.254431366920471191 0.00107504089828580618 0.176136329770088196 130 130 130
0.259807318449020386 -0.314381897449493408 0.88983452320098877 19 19 19
0.166258856654167175 -0.206495940685272217 0.945510029792785645 18 18 18
-0.37447783350944519 0.0303050931543111801 0.369532644748687744 84 84 84
0.387136846780776978 -0.442744612693786621 0.876551389694213867 17 17 17
-0.235524624586105347 -0.164290860295295715 0.920477330684661865 190 190 190
-0.221923470497131348 0.282669305801391602 0.238355845212936401 92 92 92
-0.274496644735336304 -0.0447479449212551117 0.528623998165130615 195 195 195
-0.455870270729064941 0.0573553256690502167 0.393464326858520508 71 71 71
0.393806874752044678 0.255106508731842041 0.230603188276290894 115 115 115
-0.0768908262252807617 0.219928398728370667 0.0270405430346727371 135 135 135
-0.0457040518522262573 0.331992030143737793 0.0966418683528900146 91 91 91
-0.238680228590965271 0.206429377198219299 0.378351807594299316 88 88 88
0.973930597305297852 -0.0579811222851276398 0.717043101787567139 57 57 57
-0.0912793651223182678 0.112527869641780853 -0.0588988363742828369 75 75 75
0.467128664255142212 0.0231989398598670959 1.02325832843780518 92 92 92
0.210637480020523071 0.285610377788543701 0.228206634521484375 112 112 112
0.257139861583709717 -0.158591285347938538 0.899101018905639648 216 216 216
-0.259690999984741211 0.132920637726783752 0.373495042324066162 93 93 93
0.245234593749046326 -0.217821717262268066 0.176204904913902283 111 111 111
0.0304892044514417648 0.264066159725189209 0.289480656385421753 127 127 127
0.524316132068634033 -0.321925163269042969 0.909796774387359619 16 16 16
0.444130748510360718 -0.242405086755752563 0.925514519214630127 15 15 15
-0.304513514041900635 0.143361568450927734 0.382439911365509033 89 89 89
-0.223376035690307617 0.0344989262521266937 0.355568736791610718 104 104 104
-0.273454844951629639 -0.0551740676164627075 0.580903887748718262 189 189 189
-0.46090930700302124 0.166195213794708252 0.412494361400604248 66 66 66
-0.279330343008041382 0.252665787935256958 0.308655738830566406 108 108 108
-0.113961376249790192 -0.417153000831604004 0.940310895442962646 237 237 237
0.0161491762846708298 -0.477414488792419434 0.909005343914031982 253 253 253
0.169351264834403992 -0.392013281583786011 0.897582650184631348 21 21 21
0.398929059505462646 0.208184048533439636 0.459171861410140991 108 108 108
0.33863714337348938 -0.189274758100509644 0.100532971322536469 100 100 100
0.547187507152557373 0.0915510579943656921 0.918292701244354248 95 95 95
0.794082701206207275 -0.583339571952819824 0.911887705326080322 220 220 220
-0.23761923611164093 0.247846752405166626 0.34077867865562439 107 107 107
-0.347741067409515381 0.193234145641326904 0.398010492324829102 81 81 81
0.638924539089202881 0.00706329289823770523 1.06935703754425049 119 119 119
0.361595869064331055 -0.14662635326385498 0.0967866107821464539 135 135 135
-0.272291868925094604 0.165914162993431091 -0.0884482264518737793 8 8 8
0.954908668994903564 -0.316002786159515381 0.754641711711883545 75 75 75
-0.226910203695297241 -0.411199003458023071 0.754945158958435059 236 236 236
0.229760482907295227 0.242989122867584229 0.26133313775062561 106 106 106
0.266293644905090332 0.227867141366004944 0.405392050743103027 103 103 103
0.324637353420257568 0.0422455780208110809 0.172351762652397156 126 126 126
-0.0644553974270820618 0.316783338785171509 0.0498318970203399658 99 99 99
0.172805279493331909 -0.294278264045715332 0.931804895401000977 20 20 20
-0.453499048948287964 0.148700937628746033 0.409079670906066895 67 67 67
0.269883483648300171 -0.103561319410800934 0.836932837963104248 12 12 12
1.03330230712890625 -0.449028491973876953 0.753634512424468994 245 245 245
-0.258750796318054199 -0.0572541579604148865 0.57485884428024292 189 189 189
-0.410536527633666992 0.0452213026583194733 0.37714695930480957 84 84 84
-0.171859130263328552 0.0227150972932577133 0.346024572849273682 73 73 73
-0.182507559657096863 0.0525610223412513733 0.352926820516586304 99 99 99
-0.182505622506141663 0.052561543881893158 0.352928966283798218 99 99 99
0.0443023890256881714 -0.182656615972518921 0.97445225715637207 209 209 209
-0.0926017165184020996 0.31451830267906189 0.13361629843711853 111 111 111
0.228617191314697266 -0.184149473905563354 0.133628234267234802 154 154 154
0.314227700233459473 -0.169741004705429077 0.111189670860767365 127 127 127
-0.428830325603485107 0.151780366897583008 0.407953053712844849 74 74 74
0.046268954873085022 -0.156209319829940796 0.99259340763092041 194 194 194
0.332810819149017334 -0.190453663468360901 0.106054037809371948 115 115 115
-0.107656732201576233 0.285169273614883423 0.227908238768577576 125 125 125
0.17641177773475647 -0.457170426845550537 0.894141256809234619 22 22 22
-0.094492785632610321 0.028992779552936554 -0.00939818564802408218 80 80 80
0.398033440113067627 -0.0870306417346000671 0.096991710364818573 129 129 129
0.236262723803520203 0.23516438901424408 0.61536705493927002 255 255 255
0.0263452101498842239 0.256594032049179077 0.317299127578735352 129 129 129
0.841089606285095215 -0.0216428991407155991 0.85815882682800293 130 130 130
-0.074513562023639679 0.209690213203430176 0.0133246136829257011 133 133 133
-0.277702391147613525 0.113929547369480133 0.374435603618621826 96 96 96
0.253233402967453003 0.317391157150268555 0.151667922735214233 109 109 109
0.291058361530303955 0.0296180695295333862 0.284094274044036865 134 134 134
0.384340435266494751 -0.0824924036860466003 0.109577812254428864 114 114 114
-0.0940448492765426636 0.202862098813056946 -0.0555837489664554596 70 70 70
0.377760350704193115 0.15290580689907074 0.177433177828788757 130 130 130
0.4069996178150177 -0.10812252014875412 0.0889107659459114075 129 129 129
0.927809178829193115 -0.386784225702285767 0.170117214322090149 20 20 20
0.318133950233459473 -0.153611034154891968 0.0530095845460891724 103 103 103
-0.0884959027171134949 0.209927499294281006 -0.0133559359237551689 126 126 126
-0.087337687611579895 0.205703079700469971 -0.0136153716593980789 129 129 129
0.233799755573272705 -0.113730370998382568 0.808490753173828125 16 16 16
-0.0870516672730445862 0.230793178081512451 -0.0071602468378841877 124 124 124
-0.0842716768383979797 0.00428667478263378143 0.00122226786334067583 212 212 212
0.952506184577941895 -0.377938598394393921 0.165204465389251709 19 19 19
-0.0829890593886375427 0.165015459060668945 -0.0169657543301582336 126 126 126
0.313866794109344482 -0.147925481200218201 0.0336402244865894318 157 157 157
-0.0962391495704650879 0.297896295785903931 -0.0179264582693576813 111 111 111
-0.0922118723392486572 0.102563127875328064 -0.00892522931098937988 78 78 78
-0.0933870971202850342 0.0763172060251235962 -0.0156038831919431686 75 75 75
-0.0923958867788314819 0.250171959400177002 -0.0218278374522924423 117 117 117
-0.0966916903853416443 0.295887619256973267 -0.0259790569543838501 35 35 35
-0.0936307832598686218 0.298140764236450195 -0.0483052060008049011 108 108 108
-0.0971536785364151001 0.316008508205413818 -0.0242790356278419495 45 45 45
-0.0922530516982078552 0.257519751787185669 -0.0656447708606719971 112 112 112
-0.0846268683671951294 0.114357858896255493 -0.0295488182455301285 116 116 116
-0.0885255634784698486 0.217889145016670227 -0.0281759239733219147 121 121 121
1.01855921745300293 -0.366059660911560059 0.101886168122291565 255 255 255
-0.0889850333333015442 0.189304158091545105 -0.0307477302849292755 109 109 109
0.388797074556350708 -0.139116570353507996 -0.0128114121034741402 255 255 255
0.305225074291229248 -0.0748841464519500732 0.00866969022899866104 255 255 255
-0.251479476690292358 0.0812472701072692871 -0.0661091729998588562 69 69 69
0.408085882663726807 -0.11995050311088562 -0.00922127719968557358 206 206 206
-0.0923304557800292969 0.248085170984268188 -0.0663027167320251465 112 112 112
0.388979136943817139 -0.161068558692932129 -0.00841008778661489487 255 255 255
0.975547909736633301 0.0544977337121963501 0.0940775498747825623 223 223 223
-0.0912519544363021851 0.0823339596390724182 -0.0368464738130569458 27 27 27
-0.0918287485837936401 0.0371040105819702148 -0.0409866422414779663 13 13 13
0.991406083106994629 0.059491865336894989 0.0746968761086463928 214 214 214
-0.0903994888067245483 0.091167159378528595 -0.0395609475672245026 67 67 67
-0.0908486619591712952 0.070161767303943634 -0.0414617173373699188 47 47 47
-0.0943764150142669678 0.304279983043670654 -0.0403975322842597961 111 111 111
-0.316446632146835327 0.0484401658177375793 0.370344460010528564 84 84 84
0.952984094619750977 -0.200450271368026733 -0.325867921113967896 255 255 255
0.284837931394577026 -0.0803648605942726135 0.143825411796569824 149 149 149
-0.242509320378303528 0.115385912358760834 -0.147423058748245239 108 108 108
-0.291571855545043945 0.0898433923721313477 -0.135064572095870972 98 98 98
-0.30105900764465332 0.19147174060344696 0.387526959180831909 84 84 84
1.34243357181549072 0.527998268604278564 -0.398328512907028198 60 60 60
0.972813010215759277 0.413340866565704346 -0.251627862453460693 75 75 75
1.06790101528167725 0.274062424898147583 0.23386092483997345 108 108 108
0.907615900039672852 -0.183410629630088806 -0.483231037855148315 18 18 18
-0.0850199088454246521 0.335347950458526611 0.0215276237577199936 116 116 116
-0.381233513355255127 0.0214685816317796707 0.37150806188583374 78 78 78
-0.236577942967414856 0.0858848467469215393 -0.150306239724159241 22 22 22
0.984928131103515625 -0.0947515442967414856 -0.341996669769287109 255 255 255
-0.255711734294891357 0.0650272443890571594 -0.0961744040250778198 41 41 41
0.0549453794956207275 -0.321443825960159302 0.960998833179473877 222 222 222
-0.27929764986038208 0.0670279935002326965 -0.121896110475063324 46 46 46
0.585502862930297852 0.141699954867362976 -0.261342048645019531 15 15 15
0.982344746589660645 0.07769002765417099 -0.376607775688171387 24 24 24
-0.278637468814849854 0.12616497278213501 -0.10358593612909317 10 10 10
1.00703847408294678 -0.0447449646890163422 -0.370765507221221924 181 181 181
-0.177452579140663147 -0.0597024597227573395 0.602277278900146484 182 182 182
-0.30725407600402832 0.0847577750682830811 0.371178686618804932 81 81 81
0.0213060863316059113 -0.216137915849685669 0.956743001937866211 206 206 206
0.133319929242134094 0.325924873352050781 0.109660729765892029 99 99 99
-0.0894583985209465027 0.105916939675807953 -0.039150826632976532 112 112 112
-0.324582874774932861 0.0233946498483419418 0.363327890634536743 90 90 90
0.314124912023544312 -0.0323594026267528534 0.144147381186485291 141 141 141
-0.236334562301635742 0.0830874592065811157 -0.150492206215858459 19 19 19
-0.116145990788936615 0.324038028717041016 0.113585308194160461 119 119 119
0.075078919529914856 -0.148190215229988098 1.00823295116424561 170 170 170
0.166821092367172241 -0.321292012929916382 0.93200385570526123 18 18 18
-0.2637176513671875 0.130239397287368774 -0.0967592820525169373 12 12 12
0.379829317331314087 0.00328410626389086246 -0.101199060678482056 227 227 227
0.909451127052307129 0.0972210317850112915 -0.00898387841880321503 40 40 40
0.154132187366485596 -0.254573702812194824 0.951709747314453125 20 20 20
0.99257892370223999 0.0501188114285469055 -0.352137267589569092 25 25 25
-0.242900222539901733 0.0850265547633171082 -0.135671705007553101 16 16 16
-0.268694549798965454 0.163919389247894287 -0.109676361083984375 111 111 111
-0.267483115196228027 -0.0331976339221000671 0.467878431081771851 193 193 193
-0.26519361138343811 0.0368406288325786591 -0.105900838971138 12 12 12
0.949595987796783447 0.0423902124166488647 -0.460256606340408325 21 21 21
0.704499363899230957 -0.250848442316055298 -0.170672103762626648 255 255 255
0.462172329425811768 -0.32415345311164856 0.910605013370513916 18 18 18
-0.265538930892944336 0.038743484765291214 -0.0991667881608009338 9 9 9
-0.265535473823547363 0.0387447811663150787 -0.0991671904921531677 9 9 9
-0.256399959325790405 0.0914625152945518494 -0.0962480604648590088 9 9 9
0.309168696403503418 0.158370643854141235 -0.168336719274520874 92 92 92
-0.0957181453704833984 0.33629646897315979 0.0639376193284988403 93 93 93
0.277847886085510254 -0.130181923508644104 0.779208123683929443 15 15 15
0.289662480354309082 0.619629979133605957 -0.223847180604934692 115 115 115
0.390271663665771484 -0.130821868777275085 -0.0350013785064220428 255 255 255
0.347482442855834961 -0.230511784553527832 0.0981000661849975586 104 104 104
-0.250750184059143066 0.0229012575000524521 -0.109347917139530182 89 89 89
1.00619935989379883 -0.116067603230476379 -0.347310334444046021 255 255 255
-0.294590145349502563 0.170870780944824219 0.385192722082138062 88 88 88
0.220707982778549194 0.213116124272346497 -0.265385448932647705 84 84 84
-0.264295220375061035 0.0383227318525314331 -0.0904497355222702026 14 14 14
-0.391116201877593994 0.114573113620281219 0.397448927164077759 79 79 79
0.94512629508972168 0.0461475811898708344 -0.433055341243743896 22 22 22
0.557705521583557129 -0.0306036602705717087 -0.190057307481765747 255 255 255
0.55719292163848877 -0.0306266117841005325 -0.189999744296073914 255 255 255
1.00350797176361084 -0.0149001646786928177 -0.358644247055053711 183 183 183
0.180296838283538818 -0.26539573073387146 0.926151931285858154 21 21 21
0.664876580238342285 -0.274060279130935669 -0.105122186243534088 255 255 255
0.22278989851474762 -0.304175674915313721 0.979995548725128174 22 22 22
0.822052061557769775 -0.112034857273101807 -0.280484318733215332 255 255 255
-0.310323715209960938 0.0560919605195522308 0.370542705059051514 85 85 85
0.302855879068374634 -0.0171455312520265579 -0.0357970334589481354 36 36 36
0.519705116748809814 -0.0688437670469284058 -0.167739018797874451 255 255 255
0.0942234545946121216 -0.283372223377227783 0.983705103397369385 211 211 211
-0.284268707036972046 0.103334493935108185 0.371362835168838501 88 88 88
0.695055067539215088 -0.24459819495677948 -0.185624152421951294 255 255 255
-0.258492648601531982 0.0778973028063774109 -0.085276871919631958 14 14 14
-0.09091147780418396 0.294954538345336914 -0.0851496607065200806 116 116 116
0.463354557752609253 -0.133144468069076538 -0.148167058825492859 255 255 255
0.434679239988327026 -0.0929647460579872131 -0.155191555619239807 255 255 255
-0.350793331861495972 0.151693567633628845 0.39720308780670166 79 79 79
0.402339726686477661 -0.0548752620816230774 -0.101974152028560638 255 255 255
0.215909197926521301 -0.293908089399337769 0.975852012634277344 20 20 20
0.55136030912399292 0.0165763963013887405 -0.177614346146583557 254 254 254
-0.202222183346748352 -0.0271896347403526306 0.468182355165481567 202 202 202
0.475880920886993408 -0.156035199761390686 -0.12364613264799118 255 255 255
0.119448050856590271 -0.152588143944740295 0.875180542469024658 153 153 153
-0.200668543577194214 0.0886479467153549194 0.362686842679977417 101 101 101
-0.303532451391220093 0.199816390872001648 0.388637810945510864 82 82 82
-0.251028716564178467 0.0689531341195106506 -0.0796226561069488525 57 57 57
-0.283884108066558838 0.093970276415348053 0.373486965894699097 83 83 83
0.232884764671325684 -0.108692295849323273 0.948322832584381104 7 7 7
-0.268410474061965942 0.0554345175623893738 -0.0792357102036476135 71 71 71
0.221190780401229858 -0.0162196587771177292 0.935875356197357178 54 54 54
0.178764358162879944 -0.338884651660919189 0.897002935409545898 20 20 20
-0.271487623453140259 0.136176809668540955 0.376007497310638428 79 79 79
-0.25086742639541626 0.0722093433141708374 -0.081792004406452179 22 22 22
0.249328508973121643 -0.248785346746444702 0.91260230541229248 15 15 15
0.446145385503768921 -0.163989454507827759 0.948241531848907471 13 13 13
0.168367817997932434 -0.045667547732591629 0.844943583011627197 24 24 24
-0.220201626420021057 0.215450376272201538 0.376056045293807983 84 84 84
-0.221416354179382324 0.00102138833608478308 0.388294577598571777 220 220 220
-0.257524847984313965 0.10450880229473114 0.370452433824539185 91 91 91
-0.207403436303138733 0.0546176731586456299 0.355277359485626221 83 83 83
0.427549272775650024 -0.342152059078216553 0.897128105163574219 15 15 15
0.206020742654800415 -0.000424588564783334732 0.869061529636383057 70 70 70
0.2811603844165802 -0.185998588800430298 0.910071849822998047 16 16 16
0.283626198768615723 -0.299275845289230347 0.886653363704681396 15 15 15
-0.208468377590179443 0.0592074133455753326 0.356164067983627319 84 84 84
0.288282066583633423 -0.317632019519805908 0.883246839046478271 15 15 15
-0.249744638800621033 0.145276591181755066 0.377512574195861816 91 91 91
0.450859427452087402 0.0551988258957862854 1.03093457221984863 63 63 63
-0.229904875159263611 0.237473726272583008 0.382712215185165405 63 63 63
-0.182915389537811279 0.287967950105667114 0.386987477540969849 108 108 108
-0.239672154188156128 0.0166098736226558685 0.356226980686187744 98 98 98
0.424429565668106079 -0.0899402499198913574 0.974203586578369141 19 19 19
-0.223735898733139038 0.184339642524719238 0.37364467978477478 88 88 88
0.400366306304931641 -0.219694748520851135 0.92303997278213501 16 16 16
0.344265133142471313 -0.37914961576461792 0.891186296939849854 16 16 16
0.399546355009078979 -0.400310337543487549 0.885354220867156982 9 9 9
-0.203232601284980774 0.240293294191360474 0.380233645439147949 72 72 72
-0.250647038221359253 0.204241424798965454 0.382482558488845825 85 85 85
-0.184665948152542114 0.287003427743911743 0.39220881462097168 104 104 104
-0.236417204141616821 0.0464495494961738586 0.360613584518432617 91 91 91
-0.25341343879699707 0.241903051733970642 0.38902735710144043 81 81 81
-0.222360774874687195 0.141055554151535034 0.370340198278427124 95 95 95
0.36179998517036438 -0.311303406953811646 0.899347126483917236 20 20 20
0.268516629934310913 -0.0978366434574127197 0.865548133850097656 15 15 15
0.341057866811752319 -0.19141019880771637 0.916948378086090088 18 18 18
0.222383484244346619 -0.105865016579627991 0.811460554599761963 16 16 16
-0.225924894213676453 0.112279638648033142 0.367887914180755615 94 94 94
0.777705729007720947 0.484871536493301392 -0.600359439849853516 72 72 72
0.537159979343414307 0.0100651327520608902 -0.0441145263612270355 36 36 36
0.0494706667959690094 0.0159634016454219818 -0.00459575233981013298 255 255 255
0.953968942165374756 -0.176496967673301697 0.940743625164031982 87 87 87
0.905384182929992676 -0.378863811492919922 0.305484473705291748 26 26 26
0.424690455198287964 -0.0423926487565040588 0.994173288345336914 94 94 94
0.266941636800765991 0.0525196194648742676 -0.0985322520136833191 170 170 170
0.53706967830657959 0.0100567080080509186 -0.0441123023629188538 36 36 36
0.942947626113891602 0.138869047164916992 -0.475889146327972412 18 18 18
0.960112214088439941 -0.0635395869612693787 -0.5767708420753479 15 15 15
0.701893985271453857 -0.0243655107915401459 1.03843462467193604 150 150 150
0.958361506462097168 -0.155217364430427551 1.02463507652282715 99 99 99
1.01445269584655762 0.0870344564318656921 -0.746325433254241943 22 22 22
0.948143661022186279 -0.32047387957572937 0.850440621376037598 79 79 79
0.456504106521606445 -0.132885366678237915 -0.151172608137130737 255 255 255
0.370746493339538574 0.0486136674880981445 -0.142566606402397156 181 181 181
0.456474006175994873 -0.132884249091148376 -0.151168689131736755 255 255 255
0.911561012268066406 0.134498849511146545 -0.0579963736236095428 49 49 49
0.444441616535186768 -0.133090078830718994 0.0690092071890830994 227 227 227
0.393707960844039917 0.219912230968475342 -0.208862870931625366 178 178 178
0.300160437822341919 -0.0573222190141677856 0.271729767322540283 141 141 141
-0.0957668274641036987 0.265909969806671143 -0.0468253679573535919 105 105 105
0.949846565723419189 -0.271258413791656494 1.01256775856018066 163 163 163
0.385486215353012085 -0.0467047207057476044 -0.0806500837206840515 255 255 255
-0.11381867527961731 0.320485860109329224 0.136781275272369385 130 130 130
0.878088831901550293 -0.559702873229980469 0.953481376171112061 219 219 219
-0.0932861417531967163 0.231438830494880676 -0.0619292482733726501 130 130 130
0.989390075206756592 -0.0482269227504730225 -0.724521756172180176 24 24 24
0.369946926832199097 -0.0950520932674407959 0.0483335442841053009 255 255 255
0.264539480209350586 0.196163564920425415 -0.193954721093177795 177 177 177
0.923002123832702637 0.0124119594693183899 -0.0244271606206893921 34 34 34
0.141849011182785034 0.328484207391738892 0.101915083825588226 109 109 109
0.294962316751480103 0.161220118403434753 0.212920397520065308 127 127 127
0.950470149517059326 -0.0529745519161224365 -0.542139232158660889 24 24 24
0.995161831378936768 0.264383852481842041 -0.511166751384735107 13 13 13
0.0703815370798110962 0.330621927976608276 0.101114034652709961 86 86 86
